# .PCD v0.7 - Point Cloud Data file format
VERSION 0.7
FIELDS x y z rgba
SIZE 4 4 4 4
TYPE F F F U
COUNT 1 1 1 1
WIDTH 1029
HEIGHT 1
VIEWPOINT 0 0 0 1 0 0 0
POINTS 1029
DATA ascii
0.32826707 -0.04406096 -1.0499313 4281547064
0.33118218 -0.044186853 -1.0529311 4281547319
0.33315939 -0.044186853 -1.0529311 4281613110
0.33513662 -0.044186853 -1.0529311 4281679158
0.3371138 -0.044186853 -1.0529311 4281810487
0.33909103 -0.044186853 -1.0529311 4281941050
0.34106824 -0.044186853 -1.0529311 4282072893
0.34304541 -0.044186853 -1.0529311 4282269759
0.34502265 -0.044186853 -1.0529311 4282204226
0.34699985 -0.044186853 -1.0529311 4282139456
0.30686232 -0.036969244 -0.88094229 4292269008
0.30781624 -0.036885321 -0.87894249 4292203223
0.30946672 -0.036885321 -0.87894249 4292072147
0.31040928 -0.036801394 -0.87694257 4291874255
0.31205603 -0.036801394 -0.87694257 4291611595
0.31370276 -0.036801394 -0.87694257 4291479752
0.31606865 -0.036885321 -0.87894249 4291347655
0.31844208 -0.036969244 -0.88094229 4291282631
0.32191297 -0.03717906 -0.88594192 4291282885
0.32576784 -0.037430834 -0.89194155 4291348676
0.15492345 -0.042306092 -0.96493393 4284036149
0.15673544 -0.042306092 -0.96493393 4285482304
0.1585474 -0.042306092 -0.96493393 4286990660
0.16035937 -0.042306092 -0.96493393 4287518025
0.16217133 -0.042306092 -0.96493393 4288109131
0.16398332 -0.042306092 -0.96493393 4288044366
0.16579528 -0.042306092 -0.96493393 4287976508
0.16812833 -0.042437609 -0.96793371 4287377706
0.16941921 -0.042306092 -0.96493393 4286789688
0.1712312 -0.042306092 -0.96493393 4287381062
0.17304316 -0.042306092 -0.96493393 4287971138
0.17485514 -0.042306092 -0.96493393 4287840830
0.17666711 -0.042306092 -0.96493393 4287775552
0.17847908 -0.042306092 -0.96493393 4287772737
0.18029104 -0.042306092 -0.96493393 4287841859
0.18266915 -0.042437609 -0.96793371 4288561221
0.18448675 -0.042437609 -0.96793371 4289289037
0.18572696 -0.042306092 -0.96493393 4290079829
0.18753892 -0.042306092 -0.96493393 4290866510
0.18993956 -0.042437609 -0.96793371 4290933576
0.19175717 -0.042437609 -0.96793371 4291062854
0.19357476 -0.042437609 -0.96793371 4290930245
0.19579606 -0.042525291 -0.96993357 4290800213
0.19761743 -0.042525291 -0.96993357 4291197029
0.19943878 -0.042525291 -0.96993357 4291656028
0.20126015 -0.042525291 -0.96993357 4291194708
0.2030815 -0.042525291 -0.96993357 4290799188
0.20490286 -0.042525291 -0.96993357 4290666579
0.20672421 -0.042525291 -0.96993357 4290601549
0.20854558 -0.042525291 -0.96993357 4290668104
0.21036693 -0.042525291 -0.96993357 4290734667
0.2121883 -0.042525291 -0.96993357 4290999630
0.21467155 -0.042656817 -0.97293341 4291259468
0.21716605 -0.042788334 -0.97593319 4291066185
0.21944743 -0.042876016 -0.97793299 4290865744
0.22128382 -0.042876016 -0.97793299 4290801238
0.2231202 -0.042876016 -0.97793299 4290733911
0.22495659 -0.042876016 -0.97793299 4290931800
0.22679296 -0.042876016 -0.97793299 4291192406
0.22862935 -0.042876016 -0.97793299 4290933332
0.24224821 -0.045068037 -1.0279295 4290666064
0.24417847 -0.045068037 -1.0279295 4290143308
0.24539056 -0.044936523 -1.0249298 4289680973
0.24731518 -0.044936523 -1.0249298 4289356110
0.24923983 -0.044936523 -1.0249298 4289026640
0.25189954 -0.045068037 -1.0279295 4288506195
0.25308907 -0.044936523 -1.0249298 4288043862
0.2550137 -0.044936523 -1.0249298 4286931032
0.25693834 -0.044936523 -1.0249298 4285814098
0.258863 -0.044936523 -1.0249298 4284765516
0.26078761 -0.044936523 -1.0249298 4283713348
0.26271224 -0.044936523 -1.0249298 4282268732
0.26541141 -0.045068037 -1.0279295 4280889658
0.26734167 -0.045068037 -1.0279295 4280554553
0.26927194 -0.045068037 -1.0279295 4280230450
0.27120221 -0.045068037 -1.0279295 4280624171
0.27860969 -0.045331083 -1.0339291 4281018669
0.28136522 -0.045462605 -1.036929 4281148974
0.28331238 -0.045462605 -1.036929 4281280813
0.28915384 -0.045462605 -1.036929 4281806638
0.29110101 -0.045462605 -1.036929 4282069550
0.29220039 -0.045331083 -1.0339291 4282069807
0.29414192 -0.045331083 -1.0339291 4282134828
0.29608348 -0.045331083 -1.0339291 4281938218
0.29888967 -0.045462605 -1.036929 4281807147
0.30083683 -0.045462605 -1.036929 4281807149
0.302784 -0.045462605 -1.036929 4281872685
0.30561274 -0.045594126 -1.0399288 4282004269
0.30756557 -0.045594126 -1.0399288 4282135086
0.30951834 -0.045594126 -1.0399288 4282004015
0.31147116 -0.045594126 -1.0399288 4281938479
0.31342393 -0.045594126 -1.0399288 4281807408
0.31537673 -0.045594126 -1.0399288 4281676593
0.31855002 -0.045769487 -1.0439285 4281677363
0.32143134 -0.045901012 -1.0469283 4281742901
0.32339728 -0.045901012 -1.0469283 4281677623
0.32536322 -0.045901012 -1.0469283 4281677880
0.32826707 -0.046032533 -1.0499281 4281678393
0.33023864 -0.046032533 -1.0499281 4281678649
0.33221024 -0.046032533 -1.0499281 4281744697
0.33513662 -0.046164058 -1.052928 4281876539
0.3371138 -0.046164058 -1.052928 4282008636
0.33909103 -0.046164058 -1.052928 4282138941
0.34009653 -0.046032533 -1.0499281 4282270525
0.34206811 -0.046032533 -1.0499281 4282466618
0.34502265 -0.046164058 -1.052928 4282073400
0.34699985 -0.046164058 -1.052928 4281744950
0.34798279 -0.046032533 -1.0499281 4281547317
0.34795463 -0.045769487 -1.0439285 4281421899
0.34991494 -0.045769487 -1.0439285 4284638049
0.30333602 -0.039237253 -0.89493871 4289639061
0.30399418 -0.039105732 -0.89193887 4291475625
0.30258498 -0.038711164 -0.88293946 4291876029
0.30424297 -0.038711164 -0.88293946 4292267973
0.30520809 -0.038623482 -0.88093966 4292137933
0.3054691 -0.038448125 -0.87693995 4292072143
0.30711582 -0.038448125 -0.87693995 4291875794
0.30876255 -0.038448125 -0.87693995 4291743694
0.30934745 -0.038316607 -0.87394011 4291545802
0.31098855 -0.038316607 -0.87394011 4291414730
0.31262967 -0.038316607 -0.87394011 4291546571
0.31534949 -0.038448125 -0.87693995 4291677388
0.31771916 -0.038535811 -0.87893987 4291546830
0.32082295 -0.038711164 -0.88293946 4291415243
0.32503745 -0.039018054 -0.88993901 4291415496
0.15396021 -0.04384375 -0.95893145 4285086014
0.15576091 -0.04384375 -0.95893145 4286137421
0.15756162 -0.04384375 -0.95893145 4287253579
0.15902998 -0.043752313 -0.95693159 4288109386
0.16082692 -0.043752313 -0.95693159 4289030483
0.16262387 -0.043752313 -0.95693159 4289227869
0.16527987 -0.043980904 -0.96193129 4289424203
0.1670862 -0.043980904 -0.96193129 4289024057
0.16889253 -0.043980904 -0.96193129 4288625986
0.17069887 -0.043980904 -0.96193129 4288956236
0.17250521 -0.043980904 -0.96193129 4289283915
0.17431155 -0.043980904 -0.96193129 4289285194
0.17611788 -0.043980904 -0.96193129 4289284677
0.17792422 -0.043980904 -0.96193129 4289218113
0.17973056 -0.043980904 -0.96193129 4289151293
0.1815369 -0.043980904 -0.96193129 4289349433
0.18334323 -0.043980904 -0.96193129 4289613640
0.18514958 -0.043980904 -0.96193129 4289879127
0.18695591 -0.043980904 -0.96193129 4290145106
0.1893509 -0.044118062 -0.96493101 4290339918
0.19116287 -0.044118062 -0.96493101 4290538827
0.19297485 -0.044118062 -0.96493101 4290932297
0.19539237 -0.044255212 -0.96793085 4291388237
0.19761743 -0.044346649 -0.96993065 4291591505
0.19943878 -0.044346649 -0.96993065 4291852377
0.20126015 -0.044346649 -0.96993065 4291460450
0.2030815 -0.044346649 -0.96993065 4291130466
0.20490286 -0.044346649 -0.96993065 4290867042
0.20672421 -0.044346649 -0.96993065 4290668372
0.20854558 -0.044346649 -0.96993065 4290734662
0.21036693 -0.044346649 -0.96993065 4290800455
0.2121883 -0.044346649 -0.96993065 4290931784
0.21467155 -0.044483807 -0.97293049 4291062853
0.21716605 -0.044620957 -0.97593027 4290865986
0.21944743 -0.044712394 -0.97793007 4290669391
0.22128382 -0.044712394 -0.97793007 4290669149
0.2231202 -0.044712394 -0.97793007 4290668898
0.22495659 -0.044712394 -0.97793007 4290799719
0.22679296 -0.044712394 -0.97793007 4290932324
0.22862935 -0.044712394 -0.97793007 4290800481
0.24224821 -0.0469983 -1.0279264 4290732121
0.24417847 -0.0469983 -1.0279264 4290470737
0.23222324 -0.044346649 -0.96993065 4290272345
0.2340446 -0.044346649 -0.96993065 4290342753
0.23586597 -0.044346649 -0.96993065 4290411626
0.25116444 -0.046861153 -1.0249268 4290150772
0.25308907 -0.046861153 -1.0249268 4289954681
0.2550137 -0.046861153 -1.0249268 4289430142
0.25693834 -0.046861153 -1.0249268 4288904569
0.258863 -0.046861153 -1.0249268 4288379509
0.26155087 -0.0469983 -1.0279264 4287784554
0.26348114 -0.0469983 -1.0279264 4286998623
0.26541141 -0.0469983 -1.0279264 4286139731
0.26734167 -0.0469983 -1.0279264 4285483336
0.26927194 -0.0469983 -1.0279264 4284752952
0.27120221 -0.0469983 -1.0279264 4284493608
0.27313247 -0.0469983 -1.0279264 4284225319
0.27586544 -0.047135461 -1.0309262 4284033574
0.27780133 -0.047135461 -1.0309262 4283835433
0.28055122 -0.047272615 -1.033926 4283313196
0.28331238 -0.047409773 -1.0369259 4282787116
0.28525952 -0.047409773 -1.0369259 4282133805
0.28720668 -0.047409773 -1.0369259 4281478956
0.28831735 -0.047272615 -1.033926 4281478188
0.29025888 -0.047272615 -1.033926 4281479725
0.29220039 -0.047272615 -1.033926 4281610030
0.29414192 -0.047272615 -1.033926 4281741610
0.29608348 -0.047272615 -1.033926 4281610023
0.29802501 -0.047272615 -1.033926 4281545259
0.29996651 -0.047272615 -1.033926 4281675823
0.30190805 -0.047272615 -1.033926 4281807407
0.30561274 -0.047546927 -1.0399257 4281938223
0.30756557 -0.047546927 -1.0399257 4282135087
0.30951834 -0.047546927 -1.0399257 4282069807
0.31147116 -0.047546927 -1.0399257 4281938992
0.31342393 -0.047546927 -1.0399257 4281873201
0.31537673 -0.047546927 -1.0399257 4281807922
0.31855002 -0.047729794 -1.0439254 4281873716
0.3205103 -0.047729794 -1.0439254 4281939510
0.32339728 -0.047866952 -1.0469252 4281939768
0.32536322 -0.047866952 -1.0469252 4281940025
0.32732916 -0.047866952 -1.0469252 4281940539
0.3292951 -0.047866952 -1.0469252 4282006588
0.33221024 -0.048004102 -1.049925 4281941565
0.33418179 -0.048004102 -1.049925 4281877567
0.33615336 -0.048004102 -1.049925 4281877314
0.33812493 -0.048004102 -1.049925 4281812032
0.34009653 -0.048004102 -1.049925 4282007102
0.34206811 -0.048004102 -1.049925 4282204214
0.34207371 -0.047729794 -1.0439254 4283056686
0.34403402 -0.047729794 -1.0439254 4283972909
0.34599432 -0.047729794 -1.0439254 4285030188
0.29997498 -0.040917784 -0.89493603 4288124042
0.3016555 -0.040917784 -0.89493603 4290099367
0.30333602 -0.040917784 -0.89493603 4290953925
0.30399418 -0.04078063 -0.89193618 4291808971
0.30429837 -0.040597759 -0.88793653 4292006354
0.30424297 -0.040369164 -0.88293684 4292204497
0.30382237 -0.040094856 -0.87693733 4292006608
0.30442414 -0.039957702 -0.87393755 4291809486
0.30606526 -0.039957702 -0.87393755 4291809485
0.30770636 -0.039957702 -0.87393755 4291808713
0.30934745 -0.039957702 -0.87393755 4291808710
0.31027693 -0.039866265 -0.87193769 4291873226
0.31191427 -0.039866265 -0.87193769 4291940558
0.31427076 -0.039957702 -0.87393755 4292072657
0.31591183 -0.039957702 -0.87393755 4291941077
0.32009631 -0.040277731 -0.88093698 4291875024
0.32576784 -0.04078063 -0.89193618 4291742668
0.15215951 -0.045644451 -0.95892859 4284757817
0.15396021 -0.045644451 -0.95892859 4286135357
0.15576091 -0.045644451 -0.95892859 4286793793
0.15723301 -0.045549259 -0.95692873 4287517518
0.15902998 -0.045549259 -0.95692873 4288701786
0.16082692 -0.045549259 -0.95692873 4289950303
0.16296373 -0.045644451 -0.95892859 4290412644
0.16476443 -0.045644451 -0.95892859 4290867287
0.16656514 -0.045644451 -0.95892859 4290668618
0.16836584 -0.045644451 -0.95892859 4290467403
0.17016655 -0.045644451 -0.95892859 4290534476
0.17196725 -0.045644451 -0.95892859 4290663752
0.17376795 -0.045644451 -0.95892859 4290731331
0.17556866 -0.045644451 -0.95892859 4290794560
0.17736936 -0.045644451 -0.95892859 4290598973
0.17917006 -0.045644451 -0.95892859 4290465085
0.18097077 -0.045644451 -0.95892859 4290203197
0.18277149 -0.045644451 -0.95892859 4289941064
0.18457219 -0.045644451 -0.95892859 4289678675
0.18637289 -0.045644451 -0.95892859 4289483085
0.18876225 -0.045787238 -0.96192843 4289742407
0.19056858 -0.045787238 -0.96192843 4290011743
0.19237493 -0.045787238 -0.96192843 4291003766
0.19539237 -0.046072815 -0.96792793 4292053883
0.19720997 -0.046072815 -0.96792793 4292060031
0.19902757 -0.046072815 -0.96792793 4292057470
0.20084518 -0.046072815 -0.96792793 4291729790
0.2030815 -0.046168003 -0.96992779 4291462258
0.20490286 -0.046168003 -0.96992779 4291068518
0.20672421 -0.046168003 -0.96992779 4290736730
0.20854558 -0.046168003 -0.96992779 4290801742
0.21036693 -0.046168003 -0.96992779 4290865739
0.2121883 -0.046168003 -0.96992779 4290864969
0.21400966 -0.046168003 -0.96992779 4290929226
0.21649854 -0.046310794 -0.97292757 4290731850
0.21899869 -0.046453584 -0.97592735 4290536277
0.2208313 -0.046453584 -0.97592735 4290537056
0.22266394 -0.046453584 -0.97592735 4290602592
0.22495659 -0.046548769 -0.97792715 4290601057
0.22679296 -0.046548769 -0.97792715 4290668381
0.22816181 -0.046453584 -0.97592735 4290735450
0.22999443 -0.046453584 -0.97592735 4290799700
0.23182707 -0.046453584 -0.97592735 4290866511
0.23222324 -0.046168003 -0.96992779 4290932570
0.2340446 -0.046168003 -0.96992779 4291331173
0.23659545 -0.046310794 -0.97292757 4291791730
0.23842244 -0.046310794 -0.97292757 4291861631
0.24099018 -0.046453584 -0.97592735 4291926150
0.24282281 -0.046453584 -0.97592735 4291996045
0.24515676 -0.046548769 -0.97792715 4292058764
0.24699314 -0.046548769 -0.97792715 4291997836
0.26078761 -0.048785783 -1.0249237 4291927172
0.26348114 -0.048928566 -1.0279233 4291670397
0.26541141 -0.048928566 -1.0279233 4291465333
0.26734167 -0.048928566 -1.0279233 4290420590
0.26927194 -0.048928566 -1.0279233 4289357654
0.27120221 -0.048928566 -1.0279233 4288372799
0.27313247 -0.048928566 -1.0279233 4287447611
0.27506274 -0.048928566 -1.0279233 4287055416
0.27699301 -0.048928566 -1.0279233 4286724920
0.27973723 -0.049071353 -1.0309231 4285481528
0.28331238 -0.049356934 -1.0369228 4284299318
0.28525952 -0.049356934 -1.0369228 4282857012
0.28637579 -0.04921414 -1.033923 4281413682
0.28748083 -0.049071353 -1.0309231 4281148208
0.28941673 -0.049071353 -1.0309231 4280887856
0.29220039 -0.04921414 -1.033923 4281084208
0.29414192 -0.04921414 -1.033923 4281347115
0.29608348 -0.04921414 -1.033923 4281346855
0.29802501 -0.04921414 -1.033923 4281346602
0.29996651 -0.04921414 -1.033923 4281543469
0.30190805 -0.04921414 -1.033923 4281740593
0.30561274 -0.049499717 -1.0399226 4281937717
0.30756557 -0.049499717 -1.0399226 4282200373
0.30951834 -0.049499717 -1.0399226 4282070581
0.31147116 -0.049499717 -1.0399226 4282004788
0.31342393 -0.049499717 -1.0399226 4282004787
0.31537673 -0.049499717 -1.0399226 4282004532
0.31855002 -0.049690101 -1.0439222 4282070326
0.3205103 -0.049690101 -1.0439222 4282136120
0.32247064 -0.049690101 -1.0439222 4282136891
0.32443091 -0.049690101 -1.0439222 4282202684
0.32639125 -0.049690101 -1.0439222 4282268477
0.3292951 -0.049832892 -1.0469221 4282334271
0.33221024 -0.049975678 -1.0499219 4282138176
0.33227217 -0.049690101 -1.0439222 4281942337
0.33423245 -0.049690101 -1.0439222 4281745986
0.33715886 -0.049832892 -1.0469221 4281548087
0.33815309 -0.049690101 -1.0439222 4281741612
0.3401134 -0.049690101 -1.0439222 4281942846
0.34207371 -0.049690101 -1.0439222 4284107344
0.34403402 -0.049690101 -1.0439222 4286279777
0.29896101 -0.042693503 -0.89693314 4290815374
0.29997498 -0.042598315 -0.89493334 4291611051
0.3016555 -0.042598315 -0.89493334 4292397497
0.30333602 -0.042598315 -0.89493334 4292269000
0.30331257 -0.042360336 -0.88993371 4292202187
0.30258498 -0.042027161 -0.88293421 4292136398
0.30217561 -0.041741587 -0.87693471 4292136910
0.30382237 -0.041741587 -0.87693471 4291874511
0.30442414 -0.041598797 -0.87393492 4291612880
0.30606526 -0.041598797 -0.87393492 4291743953
0.30770636 -0.041598797 -0.87393492 4291940816
0.30934745 -0.041598797 -0.87393492 4292138192
0.30956528 -0.041408423 -0.86993527 4292334800
0.31119889 -0.041408423 -0.86993527 4292401616
0.31283247 -0.041408423 -0.86993527 4292466385
0.31446603 -0.041408423 -0.86993527 4292400851
0.15215951 -0.047445156 -0.95892572 4284626243
0.15396021 -0.047445156 -0.95892572 4286069564
0.15576091 -0.047445156 -0.95892572 4286924854
0.15723301 -0.047346205 -0.95692587 4287845456
0.15902998 -0.047346205 -0.95692587 4288439659
0.16082692 -0.047346205 -0.95692587 4288969323
0.16262387 -0.047346205 -0.95692587 4289359979
0.16442081 -0.047346205 -0.95692587 4289687395
0.16621776 -0.047346205 -0.95692587 4289880156
0.16801471 -0.047346205 -0.95692587 4290074708
0.16981165 -0.047346205 -0.95692587 4290337101
0.17160861 -0.047346205 -0.95692587 4290598469
0.17340556 -0.047346205 -0.95692587 4290598717
0.1752025 -0.047346205 -0.95692587 4290663227
0.17699946 -0.047346205 -0.95692587 4290532410
0.17879641 -0.047346205 -0.95692587 4290465853
0.18059336 -0.047346205 -0.95692587 4290334785
0.18239029 -0.047346205 -0.95692587 4290203720
0.18418725 -0.047346205 -0.95692587 4289809743
0.18598419 -0.047346205 -0.95692587 4289480520
0.18817359 -0.047445156 -0.95892572 4289480769
0.18997429 -0.047445156 -0.95892572 4289483122
0.19237493 -0.047593579 -0.96192551 4290674340
0.1947868 -0.047741991 -0.96492523 4291863209
0.19659878 -0.047741991 -0.96492523 4292061614
0.19902757 -0.047890414 -0.96792507 4292326052
0.20084518 -0.047890414 -0.96792507 4291663514
0.20266278 -0.047890414 -0.96792507 4291002754
0.20448039 -0.047890414 -0.96792507 4290868586
0.20629798 -0.047890414 -0.96792507 4290736736
0.20811559 -0.047890414 -0.96792507 4290734934
0.21036693 -0.047989357 -0.96992487 4290799440
0.2121883 -0.047989357 -0.96992487 4290732107
0.21400966 -0.047989357 -0.96992487 4290664527
0.21583101 -0.047989357 -0.96992487 4290533715
0.21832553 -0.04813778 -0.97292465 4290469467
0.22015251 -0.04813778 -0.97292465 4290471011
0.22266394 -0.048286203 -0.97592443 4290538335
0.22449656 -0.048286203 -0.97592443 4290601564
0.22632919 -0.048286203 -0.97592443 4290601303
0.22816181 -0.048286203 -0.97592443 4290667603
0.22999443 -0.048286203 -0.97592443 4290733904
0.23182707 -0.048286203 -0.97592443 4290734669
0.23294145 -0.04813778 -0.97292465 4290801499
0.23476847 -0.04813778 -0.97292465 4291134058
0.23659545 -0.04813778 -0.97292465 4291530874
0.23842244 -0.04813778 -0.97292465 4291334794
0.24099018 -0.048286203 -0.97592443 4291140243
0.24332039 -0.048385147 -0.97792423 4291270044
0.24590881 -0.04853357 -0.98092401 4291470751
0.24775079 -0.04853357 -0.98092401 4291468707
0.2483207 -0.048286203 -0.97592443 4291537823
0.2501533 -0.048286203 -0.97592443 4291140507
0.26463687 -0.050710414 -1.0249206 4290814872
0.26656151 -0.050710414 -1.0249206 4290218133
0.26848614 -0.050710414 -1.0249206 4289625205
0.27041078 -0.050710414 -1.0249206 4289092694
0.27313247 -0.050858825 -1.0279202 4288629584
0.27506274 -0.050858825 -1.0279202 4288432202
0.27780133 -0.051007248 -1.0309201 4288234055
0.27973723 -0.051007248 -1.0309201 4287710021
0.28167313 -0.051007248 -1.0309201 4287120448
0.28443426 -0.051155668 -1.0339199 4286531131
0.28637579 -0.051155668 -1.0339199 4285872951
0.28748083 -0.051007248 -1.0309201 4285480244
0.28941673 -0.051007248 -1.0309201 4285148211
0.2913526 -0.051007248 -1.0309201 4284823347
0.29414192 -0.051155668 -1.0339199 4284558893
0.29608348 -0.051155668 -1.0339199 4284231719
0.29802501 -0.051155668 -1.0339199 4283900457
0.29996651 -0.051155668 -1.0339199 4283706412
0.30190805 -0.051155668 -1.0339199 4283574323
0.30473116 -0.051304094 -1.0369197 4283182651
0.30667835 -0.051304094 -1.0369197 4282789947
0.30951834 -0.051452514 -1.0399195 4282003771
0.31147116 -0.051452514 -1.0399195 4281218616
0.31342393 -0.051452514 -1.0399195 4281348149
0.31537673 -0.051452514 -1.0399195 4281414966
0.31855002 -0.051650405 -1.0439191 4281544760
0.3205103 -0.051650405 -1.0439191 4281677371
0.32247064 -0.051650405 -1.0439191 4281808703
0.32443091 -0.051650405 -1.0439191 4282006847
0.32639125 -0.051650405 -1.0439191 4282072128
0.3292951 -0.051798828 -1.0469189 4282138178
0.33126104 -0.051798828 -1.0469189 4281941316
0.33227217 -0.051650405 -1.0439191 4281811779
0.33423245 -0.051650405 -1.0439191 4282138435
0.33715886 -0.051798828 -1.0469189 4282465583
0.3391248 -0.051798828 -1.0469189 4284042523
0.34109074 -0.051798828 -1.0469189 4285616966
0.34207371 -0.051650405 -1.0439191 4287397234
0.34403402 -0.051650405 -1.0439191 4289176213
0.29896101 -0.044377793 -0.89693046 4291348674
0.30064529 -0.044377793 -0.89693046 4291808461
0.3016555 -0.044278845 -0.89493066 4292202956
0.30333602 -0.044278845 -0.89493066 4292202699
0.30024534 -0.043586217 -0.88093174 4292201930
0.30121425 -0.043487266 -0.87893194 4292267722
0.30217561 -0.043388318 -0.87693208 4292332748
0.30278307 -0.043239899 -0.8739323 4292202959
0.30442414 -0.043239899 -0.8739323 4292072402
0.30606526 -0.043239899 -0.8739323 4292072661
0.30770636 -0.043239899 -0.8739323 4292072663
0.30863959 -0.043140952 -0.87193245 4292204250
0.30956528 -0.043042008 -0.86993265 4292271062
0.31119889 -0.043042008 -0.86993265 4292335827
0.31283247 -0.043042008 -0.86993265 4292335570
0.31446603 -0.043042008 -0.86993265 4292203985
0.15624818 -0.049399912 -0.96192265 4287122501
0.15723301 -0.04914315 -0.95692301 4288239183
0.15902998 -0.04914315 -0.95692301 4288110937
0.16082692 -0.04914315 -0.95692301 4288045144
0.16211408 -0.048989102 -0.95392329 4288305239
0.1639054 -0.048989102 -0.95392329 4288567380
0.16569671 -0.048989102 -0.95392329 4289155410
0.16748802 -0.048989102 -0.95392329 4289745740
0.16927935 -0.048989102 -0.95392329 4290141254
0.17071201 -0.048886396 -0.95192337 4290598720
0.17249958 -0.048886396 -0.95192337 4290533178
0.17428713 -0.048886396 -0.95192337 4290532923
0.1760747 -0.048886396 -0.95192337 4290532925
0.17823592 -0.048989102 -0.95392329 4290532672
0.18002723 -0.048989102 -0.95392329 4290467140
0.18181856 -0.048989102 -0.95392329 4290466375
0.18418725 -0.04914315 -0.95692301 4289942091
0.18598419 -0.04914315 -0.95692301 4289481285
0.18778114 -0.04914315 -0.95692301 4289217343
0.1895781 -0.04914315 -0.95692301 4289025630
0.19177499 -0.049245857 -0.95892286 4290347389
0.19418126 -0.049399912 -0.96192265 4291662472
0.1959876 -0.049399912 -0.96192265 4292128148
0.19841075 -0.049553961 -0.96492237 4292649870
0.20022273 -0.049553961 -0.96492237 4291596169
0.2020347 -0.049553961 -0.96492237 4290540658
0.20448039 -0.049708016 -0.96792215 4290601563
0.20629798 -0.049708016 -0.96792215 4290733400
0.20811559 -0.049708016 -0.96792215 4290733397
0.20993321 -0.049708016 -0.96792215 4290797905
0.21175079 -0.049708016 -0.96792215 4290600270
0.21400966 -0.049810715 -0.96992195 4290467664
0.21583101 -0.049810715 -0.96992195 4290400082
0.21765237 -0.049810715 -0.96992195 4290402904
0.22015251 -0.049964774 -0.97292173 4290470750
0.22197951 -0.049964774 -0.97292173 4290535772
0.22449656 -0.050118826 -0.97592151 4290535259
0.22632919 -0.050118826 -0.97592151 4290600278
0.22816181 -0.050118826 -0.97592151 4290600018
0.22928748 -0.049964774 -0.97292173 4290666835
0.23111446 -0.049964774 -0.97292173 4290668116
0.23294145 -0.049964774 -0.97292173 4290736225
0.23476847 -0.049964774 -0.97292173 4291004015
0.23659545 -0.049964774 -0.97292173 4291266938
0.23842244 -0.049964774 -0.97292173 4290806662
0.24024944 -0.049964774 -0.97292173 4290346115
0.24282281 -0.050118826 -0.97592151 4290604416
0.24515676 -0.050221529 -0.97792131 4290935427
0.24648805 -0.050118826 -0.97592151 4291000198
0.2483207 -0.050118826 -0.97592151 4291132803
0.2501533 -0.050118826 -0.97592151 4290670209
0.25327685 -0.050375585 -0.98092109 4290212732
0.25511888 -0.050375585 -0.98092109 4290077558
0.26535693 -0.050221529 -0.97792131 4289873729
0.26719335 -0.050221529 -0.97792131 4290007879
0.26902971 -0.050221529 -0.97792131 4290209358
0.2708661 -0.050221529 -0.97792131 4290403658
0.27270246 -0.050221529 -0.97792131 4289883462
0.27453887 -0.050221529 -0.97792131 4289418051
0.29220039 -0.0530972 -1.0339168 4288568129
0.29414192 -0.0530972 -1.0339168 4287776572
0.29608348 -0.0530972 -1.0339168 4287121463
0.29802501 -0.0530972 -1.0339168 4286463031
0.29996651 -0.0530972 -1.0339168 4285938743
0.30190805 -0.0530972 -1.0339168 4285412666
0.30473116 -0.053251255 -1.0369166 4284363070
0.30667835 -0.053251255 -1.0369166 4283379772
0.30862549 -0.053251255 -1.0369166 4281936443
0.31147116 -0.053405307 -1.0399164 4280495160
0.31342393 -0.053405307 -1.0399164 4280689205
0.31658971 -0.053610712 -1.043916 4280887094
0.31855002 -0.053610712 -1.043916 4281017143
0.3205103 -0.053610712 -1.043916 4281216312
0.32339728 -0.053764764 -1.0469158 4281479994
0.32443091 -0.053610712 -1.043916 4281808698
0.32639125 -0.053610712 -1.043916 4281875515
0.3292951 -0.053764764 -1.0469158 4282005563
0.33126104 -0.053764764 -1.0469158 4281808444
0.33099911 -0.053405307 -1.0399164 4281677618
0.3329519 -0.053405307 -1.0399164 4282530343
0.33715886 -0.053764764 -1.0469158 4283456578
0.3391248 -0.053764764 -1.0469158 4286346589
0.34109074 -0.053764764 -1.0469158 4289302137
0.34403965 -0.05391882 -1.0499156 4290688661
0.2989338 -0.046318837 -0.90192747 4292005825
0.2996276 -0.046164781 -0.89892769 4291940040
0.30064529 -0.046062075 -0.89692777 4292006352
0.3016555 -0.045959372 -0.89492798 4292071889
0.30231926 -0.04580532 -0.8919282 4292137426
0.29888216 -0.045035049 -0.87692946 4292203218
0.30052888 -0.045035049 -0.87692946 4292334803
0.30114195 -0.044880997 -0.87392968 4292531668
0.3020902 -0.044778295 -0.87192988 4292532437
0.30372754 -0.044778295 -0.87192988 4292597717
0.30536488 -0.044778295 -0.87192988 4292401621
0.30700222 -0.044778295 -0.87192988 4292269783
0.30863959 -0.044778295 -0.87192988 4292269784
0.30885363 -0.04457289 -0.86793017 4292270039
0.31048346 -0.04457289 -0.86793017 4292270037
0.15576091 -0.051046558 -0.95892 4286990933
0.15723301 -0.050940096 -0.95692015 4287846990
0.15902998 -0.050940096 -0.95692015 4287910983
0.16032276 -0.050780412 -0.95392042 4287974981
0.16211408 -0.050780412 -0.95392042 4287908931
0.16356178 -0.050673954 -0.95192057 4287908165
0.16534933 -0.050673954 -0.95192057 4288497224
0.16713689 -0.050673954 -0.95192057 4289022532
0.16839214 -0.05051427 -0.94892085 4289547584
0.17017406 -0.05051427 -0.94892085 4290008636
0.17195599 -0.05051427 -0.94892085 4290073656
0.17373791 -0.05051427 -0.94892085 4290140476
0.17551985 -0.05051427 -0.94892085 4290139968
0.17786224 -0.050673954 -0.95192057 4290140483
0.18002723 -0.050780412 -0.95392042 4289745991
0.18181856 -0.050780412 -0.95392042 4289352007
0.18360986 -0.050780412 -0.95392042 4288564295
0.18540119 -0.050780412 -0.95392042 4287843650
0.1871925 -0.050780412 -0.95392042 4288168509
0.1895781 -0.050940096 -0.95692015 4288562249
0.19137505 -0.050940096 -0.95692015 4289882454
0.19357571 -0.051046558 -0.95892 4291262568
0.19537641 -0.051046558 -0.95892 4291594875
0.19717711 -0.051046558 -0.95892 4291862137
0.19960028 -0.051206246 -0.96191978 4291263096
0.2020347 -0.051365927 -0.96491951 4290666594
0.20384665 -0.051365927 -0.96491951 4290731853
0.20629798 -0.051525615 -0.96791923 4290796625
0.20811559 -0.051525615 -0.96791923 4290797653
0.20993321 -0.051525615 -0.96791923 4290797139
0.21175079 -0.051525615 -0.96791923 4290599761
0.2135684 -0.051525615 -0.96791923 4290467921
0.215386 -0.051525615 -0.96791923 4290401618
0.21765237 -0.051632073 -0.96991909 4290402390
0.21947373 -0.051632073 -0.96991909 4290402906
0.22129509 -0.051632073 -0.96991909 4290467930
0.2238065 -0.051791761 -0.97291887 4290468186
0.22563349 -0.051791761 -0.97291887 4290533718
0.22746049 -0.051791761 -0.97291887 4290533714
0.22928748 -0.051791761 -0.97291887 4290600278
0.23111446 -0.051791761 -0.97291887 4290601307
0.23294145 -0.051791761 -0.97291887 4290668647
0.23476847 -0.051791761 -0.97291887 4290868852
0.23659545 -0.051791761 -0.97291887 4291005307
0.23842244 -0.051791761 -0.97291887 4290738306
0.24024944 -0.051791761 -0.97291887 4290537331
0.24282281 -0.051951449 -0.97591859 4290668388
0.24465543 -0.051951449 -0.97591859 4290797670
0.24648805 -0.051951449 -0.97591859 4290799721
0.2483207 -0.051951449 -0.97591859 4290798696
0.25748381 -0.051951449 -0.97591859 4290006844
0.26114908 -0.051951449 -0.97591859 4289810238
0.26298168 -0.051951449 -0.97591859 4289679165
0.26535693 -0.052057903 -0.97791839 4289811005
0.26719335 -0.052057903 -0.97791839 4289944399
0.26902971 -0.052057903 -0.97791839 4290011746
0.2708661 -0.052057903 -0.97791839 4290144093
0.27270246 -0.052057903 -0.97791839 4289946968
0.27453887 -0.052057903 -0.97791839 4289747284
0.27637523 -0.052057903 -0.97791839 4289289552
0.29499537 -0.055198416 -1.0369135 4288826955
0.2969425 -0.055198416 -1.0369135 4288435527
0.29888967 -0.055198416 -1.0369135 4288039748
0.29996651 -0.055038728 -1.0339137 4287712578
0.30190805 -0.055038728 -1.0339137 4287381825
0.30473116 -0.055198416 -1.0369135 4287054913
0.30667835 -0.055198416 -1.0369135 4286723646
0.30862549 -0.055198416 -1.0369135 4285940028
0.31147116 -0.055358104 -1.0399133 4285148728
0.31462941 -0.055571016 -1.0439129 4284823861
0.31658971 -0.055571016 -1.0439129 4284556598
0.31855002 -0.055571016 -1.0439129 4284232503
0.3205103 -0.055571016 -1.0439129 4283902006
0.32339728 -0.055730708 -1.0469127 4283381045
0.32443091 -0.055571016 -1.0439129 4282921269
0.32639125 -0.055571016 -1.0439129 4282529078
0.32835156 -0.055571016 -1.0439129 4282134837
0.33126104 -0.055730708 -1.0469127 4282462773
0.33099911 -0.055358104 -1.0399133 4282853664
0.3329519 -0.055358104 -1.0399133 4285160972
0.33619279 -0.055571016 -1.0439129 4287464790
0.3391248 -0.055730708 -1.0469127 4289109920
0.29554647 -0.04801251 -0.90192479 4291412921
0.29724014 -0.04801251 -0.90192479 4292070594
0.29793957 -0.047852818 -0.89892501 4292005835
0.2996276 -0.047852818 -0.89892501 4292006607
0.30064529 -0.047746357 -0.89692509 4292137939
0.3016555 -0.047639903 -0.8949253 4292269270
0.3016414 -0.04737376 -0.88992572 4292203993
0.29785973 -0.046522096 -0.87392706 4292204763
0.29950085 -0.046522096 -0.87392706 4292335837
0.30114195 -0.046522096 -0.87392706 4292467932
0.3020902 -0.046415642 -0.87192726 4292467164
0.30372754 -0.046415642 -0.87192726 4292467161
0.30536488 -0.046415642 -0.87192726 4292401366
0.30700222 -0.046415642 -0.87192726 4292270294
0.30793169 -0.046309181 -0.86992747 4292270039
0.30885363 -0.046202723 -0.86792755 4292335575
0.31048346 -0.046202723 -0.86792755 4292270552
0.15543607 -0.052737042 -0.95691729 4286859341
0.15674013 -0.052571729 -0.95391756 4287449931
0.15853146 -0.052571729 -0.95391756 4287646025
0.15998664 -0.052461512 -0.95191771 4287907913
0.1617742 -0.052461512 -0.95191771 4287579209
0.16304635 -0.052296191 -0.94891798 4287316809
0.16482829 -0.052296191 -0.94891798 4287838025
0.16661021 -0.052296191 -0.94891798 4288364612
0.16839214 -0.052296191 -0.94891798 4288887616
0.17017406 -0.052296191 -0.94891798 4289480255
0.17195599 -0.052296191 -0.94891798 4289612607
0.17373791 -0.052296191 -0.94891798 4289810754
0.17551985 -0.052296191 -0.94891798 4289746245
0.17786224 -0.052461512 -0.95191771 4289745732
0.18002723 -0.052571729 -0.95391756 4289024836
0.18181856 -0.052571729 -0.95391756 4288301890
0.18360986 -0.052571729 -0.95391756 4287251264
0.18540119 -0.052571729 -0.95391756 4286202176
0.1871925 -0.052571729 -0.95391756 4287117120
0.18898381 -0.052571729 -0.95391756 4288105808
0.19077513 -0.052571729 -0.95391756 4289489248
0.19317199 -0.052737042 -0.95691729 4290931810
0.19496894 -0.052737042 -0.95691729 4290995812
0.1967659 -0.052737042 -0.95691729 4291129440
0.19897781 -0.052847259 -0.95891714 4290993756
0.20140661 -0.05301258 -0.96191692 4290862678
0.20321295 -0.05301258 -0.96191692 4290863185
0.20565863 -0.053177901 -0.96491659 4290862929
0.2074706 -0.053177901 -0.96491659 4290798162
0.20928258 -0.053177901 -0.96491659 4290797139
0.21175079 -0.053343218 -0.96791637 4290599508
0.2135684 -0.053343218 -0.96791637 4290468178
0.215386 -0.053343218 -0.96791637 4290402129
0.21720362 -0.053343218 -0.96791637 4290401620
0.21902122 -0.053343218 -0.96791637 4290402135
0.22083881 -0.053343218 -0.96791637 4290401365
0.22265643 -0.053343218 -0.96791637 4290401364
0.22377834 -0.053177901 -0.96491659 4290467154
0.2255903 -0.053177901 -0.96491659 4290467152
0.22810924 -0.053343218 -0.96791637 4290532949
0.22992682 -0.053343218 -0.96791637 4290599514
0.23174444 -0.053343218 -0.96791637 4290665569
0.23356204 -0.053343218 -0.96791637 4290732392
0.23586597 -0.053453431 -0.96991616 4290801005
0.23768732 -0.053453431 -0.96991616 4290735475
0.23950867 -0.053453431 -0.96991616 4290734701
0.24207641 -0.053618755 -0.97291595 4290668904
0.24390341 -0.053618755 -0.97291595 4290668137
0.2457304 -0.053618755 -0.97291595 4290537322
0.2475574 -0.053618755 -0.97291595 4290470760
0.2493844 -0.053618755 -0.97291595 4290141286
0.25121137 -0.053618755 -0.97291595 4289813087
0.25381857 -0.053784069 -0.97591567 4290076249
0.25486535 -0.053618755 -0.97291595 4290402387
0.25669238 -0.053618755 -0.97291595 4290202702
0.25851935 -0.053618755 -0.97291595 4290072395
0.26114908 -0.053784069 -0.97591567 4289810759
0.26298168 -0.053784069 -0.97591567 4289548867
0.26481432 -0.053784069 -0.97591567 4289681727
0.26664692 -0.053784069 -0.97591567 4289879372
0.26902971 -0.053894281 -0.97791547 4289880409
0.2708661 -0.053894281 -0.97791547 4289881687
0.27270246 -0.053894281 -0.97791547 4290013782
0.27453887 -0.053894281 -0.97791547 4290145370
0.27637523 -0.053894281 -0.97791547 4290016095
0.29584876 -0.057310898 -1.0399101 4289883742
0.29780155 -0.057310898 -1.0399101 4289754718
0.29888967 -0.057145577 -1.0369104 4289620821
0.29996651 -0.056980256 -1.0339106 4289490509
0.30190805 -0.056980256 -1.0339106 4289421392
0.30384958 -0.056980256 -1.0339106 4289751380
0.30756557 -0.057310898 -1.0399101 4290077529
0.30951834 -0.057310898 -1.0399101 4289951327
0.31147116 -0.057310898 -1.0399101 4289816158
0.29564315 -0.054059606 -0.98091519 4289032028
0.29748514 -0.054059606 -0.98091519 4288239704
0.30024254 -0.05422492 -0.98391491 4287389012
0.3205103 -0.057531323 -1.0439098 4286598481
0.32247064 -0.057531323 -1.0439098 4285287247
0.32536322 -0.057696644 -1.0469095 4284040272
0.32639125 -0.057531323 -1.0439098 4283119442
0.32835156 -0.057531323 -1.0439098 4282269270
0.33031186 -0.057531323 -1.0439098 4283185242
0.33227217 -0.057531323 -1.0439098 4284113244
0.3329519 -0.057310898 -1.0399101 4287795550
0.3349047 -0.057310898 -1.0399101 4291471753
0.29450434 -0.049816396 -0.90392184 4292200636
0.29554647 -0.049706187 -0.90192205 4292136900
0.29625151 -0.049540862 -0.89892232 4292071626
0.29793957 -0.049540862 -0.89892232 4292072145
0.29896101 -0.049430646 -0.89692241 4292072916
0.29997498 -0.049320433 -0.89492261 4292270039
0.29997027 -0.049044903 -0.88992304 4292466648
0.29723543 -0.048328515 -0.87692422 4292335833
0.29785973 -0.048163194 -0.87392443 4292270298
0.29950085 -0.048163194 -0.87392443 4292335835
0.30114195 -0.048163194 -0.87392443 4292467162
0.3020902 -0.048052981 -0.87192464 4292401626
0.30372754 -0.048052981 -0.87192464 4292401368
0.30536488 -0.048052981 -0.87192464 4292335574
0.30700222 -0.048052981 -0.87192464 4292335574
0.30793169 -0.047942769 -0.86992484 4292335574
0.30885363 -0.047832556 -0.86792499 4292401366
0.30976805 -0.047722343 -0.86592519 4292336343
0.15363912 -0.054533992 -0.95691442 4286528833
0.15494882 -0.054363042 -0.9539147 4286923333
0.15674013 -0.054363042 -0.9539147 4287316552
0.15819909 -0.054249071 -0.95191485 4287579467
0.15948251 -0.054078117 -0.94891512 4287907917
0.16126442 -0.054078117 -0.94891512 4288300879
0.16253093 -0.053907167 -0.9459154 4288694348
0.16430722 -0.053907167 -0.9459154 4288957258
0.16608351 -0.053907167 -0.9459154 4289217861
0.16785981 -0.053907167 -0.9459154 4288758080
0.1696361 -0.053907167 -0.9459154 4288364355
0.17141239 -0.053907167 -0.9459154 4288168519
0.17318869 -0.053907167 -0.9459154 4287909192
0.17551985 -0.054078117 -0.94891512 4287842890
0.17730176 -0.054078117 -0.94891512 4287712837
0.17964981 -0.054249071 -0.95191485 4287252033
0.18143739 -0.054249071 -0.95191485 4286793021
0.18322493 -0.054249071 -0.95191485 4286201146
0.1850125 -0.054249071 -0.95191485 4285612094
0.18680005 -0.054249071 -0.95191485 4287054403
0.18858762 -0.054249071 -0.95191485 4288565590
0.19037518 -0.054249071 -0.95191485 4289816426
0.19317199 -0.054533992 -0.95691442 4291062364
0.19496894 -0.054533992 -0.95691442 4291126862
0.1967659 -0.054533992 -0.95691442 4291125063
0.19856285 -0.054533992 -0.95691442 4291059521
0.20077851 -0.05464796 -0.95891428 4290993227
0.20257922 -0.05464796 -0.95891428 4290928725
0.2050193 -0.054818913 -0.961914 4290928722
0.20618063 -0.05464796 -0.95891428 4290863184
0.20798133 -0.05464796 -0.95891428 4290797651
0.2104383 -0.054818913 -0.961914 4290666071
0.21224464 -0.054818913 -0.961914 4290600019
0.21405098 -0.054818913 -0.961914 4290467664
0.21585731 -0.054818913 -0.961914 4290335058
0.21766365 -0.054818913 -0.961914 4290335572
0.21946999 -0.054818913 -0.961914 4290400081
0.22127633 -0.054818913 -0.961914 4290336079
0.22308266 -0.054818913 -0.961914 4290335566
0.2255903 -0.054989867 -0.96491373 4290337102
0.22740228 -0.054989867 -0.96491373 4290334547
0.22921424 -0.054989867 -0.96491373 4290403161
0.23174444 -0.05516082 -0.96791345 4290531162
0.23356204 -0.05516082 -0.96791345 4290602076
0.23537965 -0.05516082 -0.96791345 4290599776
0.23719725 -0.05516082 -0.96791345 4290408292
0.23950867 -0.055274788 -0.96991324 4290145640
0.24133004 -0.055274788 -0.96991324 4290146156
0.24315141 -0.055274788 -0.96991324 4290145131
0.24497274 -0.055274788 -0.96991324 4290211435
0.2467941 -0.055274788 -0.96991324 4290275432
0.24861546 -0.055274788 -0.96991324 4290275429
0.25121137 -0.055445742 -0.97291303 4290205535
0.25303838 -0.055445742 -0.97291303 4290276186
0.25486535 -0.055445742 -0.97291303 4290273885
0.25669238 -0.055445742 -0.97291303 4290077537
0.25851935 -0.055445742 -0.97291303 4289942105
0.26114908 -0.055616695 -0.97591281 4289747793
0.26298168 -0.055616695 -0.97591281 4289548105
0.26535693 -0.055730663 -0.97791255 4289683266
0.26719335 -0.055730663 -0.97791255 4289880649
0.26902971 -0.055730663 -0.97791255 4289881680
0.2708661 -0.055730663 -0.97791255 4289881938
0.27270246 -0.055730663 -0.97791255 4289950549
0.27453887 -0.055730663 -0.97791255 4290083681
0.27637523 -0.055730663 -0.97791255 4290019950
0.27821162 -0.055730663 -0.97791255 4289954929
0.28090703 -0.055901621 -0.98091227 4290086005
0.28188437 -0.055730663 -0.97791255 4290215782
0.28739351 -0.055730663 -0.97791255 4289620327
0.2892299 -0.055730663 -0.97791255 4289886069
0.29285195 -0.056072567 -0.98391199 4290017155
0.29469958 -0.056072567 -0.98391199 4290217859
0.29654726 -0.056072567 -0.98391199 4289886852
0.29839489 -0.056072567 -0.98391199 4289557114
0.29932716 -0.055901621 -0.98091227 4289096817
0.30116919 -0.055901621 -0.98091227 4288702317
0.30301121 -0.055901621 -0.98091227 4288113258
0.30485323 -0.055901621 -0.98091227 4287586156
0.30669525 -0.055901621 -0.98091227 4287063662
0.28369072 -0.051399857 -0.90191936 4286535799
0.28538442 -0.051399857 -0.90191936 4287199360
0.28707805 -0.051399857 -0.90191936 4287862168
0.28877175 -0.051399857 -0.90191936 4289899952
0.29110947 -0.051513825 -0.90391916 4291937724
0.29280689 -0.051513825 -0.90391916 4292070600
0.29450434 -0.051513825 -0.90391916 4292267723
0.29456347 -0.051228903 -0.89891958 4292268751
0.29625151 -0.051228903 -0.89891958 4292269779
0.29727671 -0.051114928 -0.89691973 4292138968
0.29596141 -0.050602078 -0.88792062 4292073945
0.29695845 -0.050488107 -0.88592076 4292205019
0.2986221 -0.050488107 -0.88592076 4292402394
0.29621866 -0.049804296 -0.87392181 4292336089
0.29785973 -0.049804296 -0.87392181 4292270809
0.29950085 -0.049804296 -0.87392181 4292336089
0.30045286 -0.049690325 -0.87192202 4292401881
0.3020902 -0.049690325 -0.87192202 4292336089
0.30372754 -0.049690325 -0.87192202 4292336088
0.30536488 -0.049690325 -0.87192202 4292269783
0.30700222 -0.049690325 -0.87192202 4292204246
0.30793169 -0.049576361 -0.86992222 4292270038
0.30956528 -0.049576361 -0.86992222 4292401622
0.30976805 -0.049348421 -0.86592257 4292335830
0.15396021 -0.056448665 -0.95891142 4286791483
0.15494882 -0.056154359 -0.95391184 4286988865
0.15641153 -0.056036633 -0.95191199 4287185220
0.15819909 -0.056036633 -0.95191199 4287578696
0.15897833 -0.055683456 -0.94591254 4287972681
0.16075464 -0.055683456 -0.94591254 4289022794
0.16218731 -0.055565737 -0.9439128 4290073678
0.16395985 -0.055565737 -0.9439128 4290079315
0.16573238 -0.055565737 -0.9439128 4290073671
0.16750494 -0.055565737 -0.9439128 4288693564
0.16927747 -0.055565737 -0.9439128 4287315522
0.17105001 -0.055565737 -0.9439128 4286657351
0.17282255 -0.055565737 -0.9439128 4286070344
0.17496499 -0.055683456 -0.94591254 4285872201
0.17674129 -0.055683456 -0.94591254 4285742918
0.17908369 -0.055860046 -0.94891232 4285478211
0.18086563 -0.055860046 -0.94891232 4285283397
0.18264756 -0.055860046 -0.94891232 4285148230
0.18442948 -0.055860046 -0.94891232 4285022791
0.18621141 -0.055860046 -0.94891232 4286988872
0.18739903 -0.055683456 -0.94591254 4289027412
0.18917532 -0.055683456 -0.94591254 4290148960
0.1915572 -0.055860046 -0.94891232 4291259991
0.19333912 -0.055860046 -0.94891232 4291193423
0.19573785 -0.056036633 -0.95191199 4291192141
0.19752541 -0.056036633 -0.95191199 4291126347
0.19931298 -0.056036633 -0.95191199 4291126096
0.20110054 -0.056036633 -0.95191199 4291061590
0.2028881 -0.056036633 -0.95191199 4291060824
0.20467566 -0.056036633 -0.95191199 4290928987
0.20689696 -0.056154359 -0.95391184 4290797661
0.20934454 -0.056330942 -0.95691156 4290798176
0.21158274 -0.056448665 -0.95891142 4290797404
0.21338344 -0.056448665 -0.95891142 4290533721
0.21518417 -0.056448665 -0.95891142 4290336346
0.21698487 -0.056448665 -0.95891142 4290336347
0.21878557 -0.056448665 -0.95891142 4290403934
0.22127633 -0.056625247 -0.96191114 4290339169
0.22308266 -0.056625247 -0.96191114 4290276196
0.22488901 -0.056625247 -0.96191114 4290211943
0.22740228 -0.056801833 -0.96491081 4290147183
0.22921424 -0.056801833 -0.96491081 4290279287
0.23102622 -0.056801833 -0.96491081 4290477178
0.23283818 -0.056801833 -0.96491081 4290480253
0.23537965 -0.056978419 -0.96791059 4290479485
0.23719725 -0.056978419 -0.96791059 4290022013
0.23901485 -0.056978419 -0.96791059 4289626747
0.24133004 -0.057096142 -0.96991038 4289624953
0.24315141 -0.057096142 -0.96991038 4289624949
0.24497274 -0.057096142 -0.96991038 4289888112
0.2467941 -0.057096142 -0.96991038 4290149749
0.2493844 -0.057272732 -0.97291011 4290413946
0.25121137 -0.057272732 -0.97291011 4290676608
0.25303838 -0.057272732 -0.97291011 4290418822
0.25486535 -0.057272732 -0.97291011 4290219140
0.25669238 -0.057272732 -0.97291011 4290022529
0.25851935 -0.057272732 -0.97291011 4289822074
0.26114908 -0.057449315 -0.97590989 4289690739
0.26298168 -0.057449315 -0.97590989 4289622630
0.26481432 -0.057449315 -0.97590989 4289754201
0.26664692 -0.057449315 -0.97590989 4289883223
0.26902971 -0.057567038 -0.97790962 4289883989
0.2708661 -0.057567038 -0.97790962 4289950298
0.27270246 -0.057567038 -0.97790962 4289954143
0.27453887 -0.057567038 -0.97790962 4290021743
0.27637523 -0.057567038 -0.97790962 4290025599
0.27821162 -0.057567038 -0.97790962 4290024318
0.28004798 -0.057567038 -0.97790962 4290418814
0.28739351 -0.057567038 -0.97790962 4289551460
0.29195914 -0.057743628 -0.98090935 4290145150
0.29380113 -0.057743628 -0.98090935 4290608003
0.29564315 -0.057743628 -0.98090935 4290741128
0.29748514 -0.057743628 -0.98090935 4290870403
0.30024254 -0.05792021 -0.98390901 4290870654
0.30116919 -0.057743628 -0.98090935 4290872707
0.30301121 -0.057743628 -0.98090935 4291008905
0.30485323 -0.057743628 -0.98090935 4291139471
0.30575731 -0.057567038 -0.97790962 4291013525
0.3075937 -0.057567038 -0.97790962 4290879642
0.28538442 -0.05309353 -0.90191668 4291280288
0.28707805 -0.05309353 -0.90191668 4291673007
0.28877175 -0.05309353 -0.90191668 4292005055
0.29046541 -0.05309353 -0.90191668 4292398788
0.29215911 -0.05309353 -0.90191668 4292334538
0.29385278 -0.05309353 -0.90191668 4292334541
0.29390815 -0.052799214 -0.89691705 4292400849
0.29493338 -0.052681495 -0.89491731 4292532436
0.29263696 -0.05197515 -0.88291836 4292271064
0.29362836 -0.051857423 -0.88091856 4292073945
0.29528263 -0.051857423 -0.88091856 4292204762
0.2955887 -0.051621977 -0.87691897 4292401626
0.29723543 -0.051621977 -0.87691897 4292336090
0.29785973 -0.051445391 -0.87391925 4292336089
0.29881552 -0.051327668 -0.87191945 4292336345
0.30045286 -0.051327668 -0.87191945 4292335832
0.3020902 -0.051327668 -0.87191945 4292335832
0.30372754 -0.051327668 -0.87191945 4292335319
0.30466449 -0.051209945 -0.86991966 4292203735
0.30559394 -0.051092219 -0.8679198 4292138454
0.3072238 -0.051092219 -0.8679198 4292270294
0.30814198 -0.050974496 -0.86592001 4292401366
0.30797955 -0.050680187 -0.86092049 4292270038
0.30887711 -0.05056246 -0.85892063 4292203986
0.31049001 -0.05056246 -0.85892063 4292006350
0.15082917 -0.058431588 -0.96190828 4285873974
0.15215951 -0.058249366 -0.9589085 4286332464
0.15396021 -0.058249366 -0.9589085 4286791734
0.15494882 -0.057945669 -0.95390898 4286988093
0.15591864 -0.057641968 -0.94890946 4287184705
0.15720204 -0.057459749 -0.94590974 4287578181
0.15864223 -0.057338271 -0.94390994 4287906117
0.15990499 -0.057156049 -0.94091022 4288760390
0.16167188 -0.057156049 -0.94091022 4289680209
0.16343878 -0.057156049 -0.94091022 4290076508
0.16520569 -0.057156049 -0.94091022 4290534730
0.16697261 -0.057156049 -0.94091022 4289876793
0.1687395 -0.057156049 -0.94091022 4289282624
0.17105001 -0.057338271 -0.94390994 4288825160
0.17227332 -0.057156049 -0.94091022 4288430408
0.17404023 -0.057156049 -0.94091022 4288235848
0.17580712 -0.057156049 -0.94091022 4288037959
0.17757402 -0.057156049 -0.94091022 4288040518
0.17934094 -0.057156049 -0.94091022 4288105804
0.18110785 -0.057156049 -0.94091022 4288305491
0.18287474 -0.057156049 -0.94091022 4288502352
0.18523031 -0.057338271 -0.94390994 4289422926
0.18700287 -0.057338271 -0.94390994 4290341202
0.18877541 -0.057338271 -0.94390994 4290735958
0.19095163 -0.057459749 -0.94590974 4291193939
0.19272792 -0.057459749 -0.94590974 4291193425
0.19512103 -0.057641968 -0.94890946 4291193171
0.19690298 -0.057641968 -0.94890946 4291127125
0.1986849 -0.057641968 -0.94890946 4291061846
0.20046683 -0.057641968 -0.94890946 4291194199
0.20224875 -0.057641968 -0.94890946 4291389534
0.20403068 -0.057641968 -0.94890946 4291259750
0.20646322 -0.057824187 -0.95190918 4291125351
0.20825078 -0.057824187 -0.95190918 4290931561
0.2104796 -0.057945669 -0.95390898 4290799718
0.21293843 -0.058127884 -0.9569087 4290602595
0.21473539 -0.058127884 -0.9569087 4290402403
0.21653233 -0.058127884 -0.9569087 4290276195
0.21878557 -0.058249366 -0.9589085 4290212971
0.22058627 -0.058249366 -0.9589085 4290478451
0.22238697 -0.058249366 -0.9589085 4290742906
0.22418767 -0.058249366 -0.9589085 4290810753
0.22669534 -0.058431588 -0.96190828 4290877323
0.22850168 -0.058431588 -0.96190828 4291141526
0.230308 -0.058431588 -0.96190828 4291404698
0.23211434 -0.058431588 -0.96190828 4291406494
0.23465016 -0.058613803 -0.96490794 4291405978
0.23646212 -0.058613803 -0.96490794 4291143830
0.2382741 -0.058613803 -0.96490794 4290812302
0.24083246 -0.058796022 -0.96790767 4290615943
0.24265006 -0.058796022 -0.96790767 4290414718
0.24497274 -0.0589175 -0.96990746 4290351478
0.2467941 -0.0589175 -0.96990746 4290349442
0.24861546 -0.0589175 -0.96990746 4290747279
0.25121137 -0.059099723 -0.97290719 4291144097
0.25225818 -0.0589175 -0.96990746 4291013811
0.25407955 -0.0589175 -0.96990746 4290948010
0.25669238 -0.059099723 -0.97290719 4290814882
0.25851935 -0.059099723 -0.97290719 4290747292
0.26034635 -0.059099723 -0.97290719 4290550422
0.26217332 -0.059099723 -0.97290719 4290415747
0.26481432 -0.059281938 -0.97590697 4290021488
0.26664692 -0.059281938 -0.97590697 4289621093
0.26847956 -0.059281938 -0.97590697 4289230939
0.27031219 -0.059281938 -0.97590697 4288836706
0.27270246 -0.059403419 -0.97790664 4288774506
0.27453887 -0.059403419 -0.97790664 4288713341
0.27637523 -0.059403419 -0.97790664 4289041809
0.27821162 -0.059403419 -0.97790664 4289436044
